-2000	-2000	-56.764801	
-2000	-1789	-62.005760	
-2000	-1578	-66.785457	
-2000	-1368	-70.790012	
-2000	-1157	-73.856749	
-2000	-947	-76.070981	
-2000	-736	-77.697352	
-2000	-526	-78.965161	
-2000	-315	-79.916221	
-2000	-105	-80.445171	
-2000	105	-80.445171	
-2000	315	-79.916221	
-2000	526	-78.965161	
-2000	736	-77.697352	
-2000	947	-76.070981	
-2000	1157	-73.856749	
-2000	1368	-70.790012	
-2000	1578	-66.785457	
-2000	1789	-62.005760	
-2000	2000	-56.764801	
-1789	-2000	-62.005760	
-1789	-1789	-67.249059	
-1789	-1578	-71.263765	
-1789	-1368	-73.375661	
-1789	-1157	-73.320285	
-1789	-947	-71.644130	
-1789	-736	-69.527529	
-1789	-526	-67.961474	
-1789	-315	-67.196180	
-1789	-105	-66.959315	
-1789	105	-66.959315	
-1789	315	-67.196180	
-1789	526	-67.961474	
-1789	736	-69.527529	
-1789	947	-71.644130	
-1789	1157	-73.320285	
-1789	1368	-73.375661	
-1789	1578	-71.263765	
-1789	1789	-67.249059	
-1789	2000	-62.005760	
-1578	-2000	-66.785457	
-1578	-1789	-71.263765	
-1578	-1578	-72.797455	
-1578	-1368	-69.615672	
-1578	-1157	-60.812437	
-1578	-947	-48.102561	
-1578	-736	-35.660677	
-1578	-526	-26.779855	
-1578	-315	-21.901681	
-1578	-105	-19.926427	
-1578	105	-19.926427	
-1578	315	-21.901681	
-1578	526	-26.779855	
-1578	736	-35.660677	
-1578	947	-48.102561	
-1578	1157	-60.812437	
-1578	1368	-69.615672	
-1578	1578	-72.797455	
-1578	1789	-71.263765	
-1578	2000	-66.785457	
-1368	-2000	-70.790012	
-1368	-1789	-73.375661	
-1368	-1578	-69.615672	
-1368	-1368	-54.610217	
-1368	-1157	-24.248954	
-1368	-947	17.514705	
-1368	-736	56.285768	
-1368	-526	81.875766	
-1368	-315	95.112635	
-1368	-105	100.350539	
-1368	105	100.350539	
-1368	315	95.112635	
-1368	526	81.875766	
-1368	736	56.285768	
-1368	947	17.514705	
-1368	1157	-24.248954	
-1368	1368	-54.610217	
-1368	1578	-69.615672	
-1368	1789	-73.375661	
-1368	2000	-70.790012	
-1157	-2000	-73.856749	
-1157	-1789	-73.320285	
-1157	-1578	-60.812437	
-1157	-1368	-24.248954	
-1157	-1157	51.945221	
-1157	-947	162.864217	
-1157	-736	261.543843	
-1157	-526	319.633805	
-1157	-315	346.944119	
-1157	-105	357.219507	
-1157	105	357.219507	
-1157	315	346.944119	
-1157	526	319.633805	
-1157	736	261.543843	
-1157	947	162.864217	
-1157	1157	51.945221	
-1157	1368	-24.248954	
-1157	1578	-60.812437	
-1157	1789	-73.320285	
-1157	2000	-73.856749	
-947	-2000	-76.070981	
-947	-1789	-71.644130	
-947	-1578	-48.102561	
-947	-1368	17.514705	
-947	-1157	162.864217	
-947	-947	388.154489	
-947	-736	582.420848	
-947	-526	686.530856	
-947	-315	731.935337	
-947	-105	748.361002	
-947	105	748.361002	
-947	315	731.935337	
-947	526	686.530856	
-947	736	582.420848	
-947	947	388.154489	
-947	1157	162.864217	
-947	1368	17.514705	
-947	1578	-48.102561	
-947	1789	-71.644130	
-947	2000	-76.070981	
-736	-2000	-77.697352	
-736	-1789	-69.527529	
-736	-1578	-35.660677	
-736	-1368	56.285768	
-736	-1157	261.543843	
-736	-947	582.420848	
-736	-736	857.673827	
-736	-526	1002.595883	
-736	-315	1064.643763	
-736	-105	1086.839425	
-736	105	1086.839425	
-736	315	1064.643763	
-736	526	1002.595883	
-736	736	857.673827	
-736	947	582.420848	
-736	1157	261.543843	
-736	1368	56.285768	
-736	1578	-35.660677	
-736	1789	-69.527529	
-736	2000	-77.697352	
-526	-2000	-78.965161	
-526	-1789	-67.961474	
-526	-1578	-26.779855	
-526	-1368	81.875766	
-526	-1157	319.633805	
-526	-947	686.530856	
-526	-736	1002.595883	
-526	-526	1171.577133	
-526	-315	1244.852845	
-526	-105	1271.251568	
-526	105	1271.251568	
-526	315	1244.852845	
-526	526	1171.577133	
-526	736	1002.595883	
-526	947	686.530856	
-526	1157	319.633805	
-526	1368	81.875766	
-526	1578	-26.779855	
-526	1789	-67.961474	
-526	2000	-78.965161	
-315	-2000	-79.916221	
-315	-1789	-67.196180	
-315	-1578	-21.901681	
-315	-1368	95.112635	
-315	-1157	346.944119	
-315	-947	731.935337	
-315	-736	1064.643763	
-315	-526	1244.852845	
-315	-315	1324.121739	
-315	-105	1352.966204	
-315	105	1352.966204	
-315	315	1324.121739	
-315	526	1244.852845	
-315	736	1064.643763	
-315	947	731.935337	
-315	1157	346.944119	
-315	1368	95.112635	
-315	1578	-21.901681	
-315	1789	-67.196180	
-315	2000	-79.916221	
-105	-2000	-80.445171	
-105	-1789	-66.959315	
-105	-1578	-19.926427	
-105	-1368	100.350539	
-105	-1157	357.219507	
-105	-947	748.361002	
-105	-736	1086.839425	
-105	-526	1271.251568	
-105	-315	1352.966204	
-105	-105	1382.871922	
-105	105	1382.871922	
-105	315	1352.966204	
-105	526	1271.251568	
-105	736	1086.839425	
-105	947	748.361002	
-105	1157	357.219507	
-105	1368	100.350539	
-105	1578	-19.926427	
-105	1789	-66.959315	
-105	2000	-80.445171	
105	-2000	-80.445171	
105	-1789	-66.959315	
105	-1578	-19.926427	
105	-1368	100.350539	
105	-1157	357.219507	
105	-947	748.361002	
105	-736	1086.839425	
105	-526	1271.251568	
105	-315	1352.966204	
105	-105	1382.871922	
105	105	1382.871922	
105	315	1352.966204	
105	526	1271.251568	
105	736	1086.839425	
105	947	748.361002	
105	1157	357.219507	
105	1368	100.350539	
105	1578	-19.926427	
105	1789	-66.959315	
105	2000	-80.445171	
315	-2000	-79.916221	
315	-1789	-67.196180	
315	-1578	-21.901681	
315	-1368	95.112635	
315	-1157	346.944119	
315	-947	731.935337	
315	-736	1064.643763	
315	-526	1244.852845	
315	-315	1324.121739	
315	-105	1352.966204	
315	105	1352.966204	
315	315	1324.121739	
315	526	1244.852845	
315	736	1064.643763	
315	947	731.935337	
315	1157	346.944119	
315	1368	95.112635	
315	1578	-21.901681	
315	1789	-67.196180	
315	2000	-79.916221	
526	-2000	-78.965161	
526	-1789	-67.961474	
526	-1578	-26.779855	
526	-1368	81.875766	
526	-1157	319.633805	
526	-947	686.530856	
526	-736	1002.595883	
526	-526	1171.577133	
526	-315	1244.852845	
526	-105	1271.251568	
526	105	1271.251568	
526	315	1244.852845	
526	526	1171.577133	
526	736	1002.595883	
526	947	686.530856	
526	1157	319.633805	
526	1368	81.875766	
526	1578	-26.779855	
526	1789	-67.961474	
526	2000	-78.965161	
736	-2000	-77.697352	
736	-1789	-69.527529	
736	-1578	-35.660677	
736	-1368	56.285768	
736	-1157	261.543843	
736	-947	582.420848	
736	-736	857.673827	
736	-526	1002.595883	
736	-315	1064.643763	
736	-105	1086.839425	
736	105	1086.839425	
736	315	1064.643763	
736	526	1002.595883	
736	736	857.673827	
736	947	582.420848	
736	1157	261.543843	
736	1368	56.285768	
736	1578	-35.660677	
736	1789	-69.527529	
736	2000	-77.697352	
947	-2000	-76.070981	
947	-1789	-71.644130	
947	-1578	-48.102561	
947	-1368	17.514705	
947	-1157	162.864217	
947	-947	388.154489	
947	-736	582.420848	
947	-526	686.530856	
947	-315	731.935337	
947	-105	748.361002	
947	105	748.361002	
947	315	731.935337	
947	526	686.530856	
947	736	582.420848	
947	947	388.154489	
947	1157	162.864217	
947	1368	17.514705	
947	1578	-48.102561	
947	1789	-71.644130	
947	2000	-76.070981	
1157	-2000	-73.856749	
1157	-1789	-73.320285	
1157	-1578	-60.812437	
1157	-1368	-24.248954	
1157	-1157	51.945221	
1157	-947	162.864217	
1157	-736	261.543843	
1157	-526	319.633805	
1157	-315	346.944119	
1157	-105	357.219507	
1157	105	357.219507	
1157	315	346.944119	
1157	526	319.633805	
1157	736	261.543843	
1157	947	162.864217	
1157	1157	51.945221	
1157	1368	-24.248954	
1157	1578	-60.812437	
1157	1789	-73.320285	
1157	2000	-73.856749	
1368	-2000	-70.790012	
1368	-1789	-73.375661	
1368	-1578	-69.615672	
1368	-1368	-54.610217	
1368	-1157	-24.248954	
1368	-947	17.514705	
1368	-736	56.285768	
1368	-526	81.875766	
1368	-315	95.112635	
1368	-105	100.350539	
1368	105	100.350539	
1368	315	95.112635	
1368	526	81.875766	
1368	736	56.285768	
1368	947	17.514705	
1368	1157	-24.248954	
1368	1368	-54.610217	
1368	1578	-69.615672	
1368	1789	-73.375661	
1368	2000	-70.790012	
1578	-2000	-66.785457	
1578	-1789	-71.263765	
1578	-1578	-72.797455	
1578	-1368	-69.615672	
1578	-1157	-60.812437	
1578	-947	-48.102561	
1578	-736	-35.660677	
1578	-526	-26.779855	
1578	-315	-21.901681	
1578	-105	-19.926427	
1578	105	-19.926427	
1578	315	-21.901681	
1578	526	-26.779855	
1578	736	-35.660677	
1578	947	-48.102561	
1578	1157	-60.812437	
1578	1368	-69.615672	
1578	1578	-72.797455	
1578	1789	-71.263765	
1578	2000	-66.785457	
1789	-2000	-62.005760	
1789	-1789	-67.249059	
1789	-1578	-71.263765	
1789	-1368	-73.375661	
1789	-1157	-73.320285	
1789	-947	-71.644130	
1789	-736	-69.527529	
1789	-526	-67.961474	
1789	-315	-67.196180	
1789	-105	-66.959315	
1789	105	-66.959315	
1789	315	-67.196180	
1789	526	-67.961474	
1789	736	-69.527529	
1789	947	-71.644130	
1789	1157	-73.320285	
1789	1368	-73.375661	
1789	1578	-71.263765	
1789	1789	-67.249059	
1789	2000	-62.005760	
2000	-2000	-56.764801	
2000	-1789	-62.005760	
2000	-1578	-66.785457	
2000	-1368	-70.790012	
2000	-1157	-73.856749	
2000	-947	-76.070981	
2000	-736	-77.697352	
2000	-526	-78.965161	
2000	-315	-79.916221	
2000	-105	-80.445171	
2000	105	-80.445171	
2000	315	-79.916221	
2000	526	-78.965161	
2000	736	-77.697352	
2000	947	-76.070981	
2000	1157	-73.856749	
2000	1368	-70.790012	
2000	1578	-66.785457	
2000	1789	-62.005760	
2000	2000	-56.764801	
